432.000000 -128.000000 142.000000
432.000000 -128.000000 144.000000
432.000000 -128.000000 146.000000
432.000000 -128.000000 148.000000
432.000000 -128.000000 150.000000
432.000000 -128.000000 152.000000
432.000000 -128.000000 154.000000
432.000000 -128.000000 156.000000
432.000000 -128.000000 158.000000
432.000000 -128.000000 160.000000
432.000000 -128.000000 162.000000
432.000000 -128.000000 164.000000
432.000000 -128.000000 166.000000
432.000000 -128.000000 168.000000
432.000000 -128.000000 170.000000
432.000000 -128.000000 172.000000
432.000000 -128.000000 174.000000
432.000000 -128.000000 176.000000
432.000000 -128.000000 178.000000
432.000000 -128.000000 180.000000
432.000000 -128.000000 182.000000
432.000000 -128.000000 184.000000
432.000000 -128.000000 186.000000
432.000000 -128.000000 188.000000
432.000000 -128.000000 190.000000
432.000000 -128.000000 192.000000
432.000000 -128.000000 194.000000
432.000000 -128.000000 196.000000
432.000000 -128.000000 198.000000
432.000000 -128.000000 200.000000
432.000000 -128.000000 202.000000
432.000000 -128.000000 204.000000
432.000000 -128.000000 206.000000
432.000000 -128.000000 208.000000
432.000000 -128.000000 210.000000
432.000000 -128.000000 212.000000
432.000000 -128.000000 214.000000
432.000000 -128.000000 216.000000
432.000000 -128.000000 218.000000
432.000000 -128.000000 220.000000
432.000000 -128.000000 222.000000
432.000000 -128.000000 224.000000
432.000000 -128.000000 226.000000
432.000000 -128.000000 228.000000
432.000000 -128.000000 230.000000
432.000000 -128.000000 232.000000
432.000000 -128.000000 234.000000
432.000000 -128.000000 236.000000
432.000000 -128.000000 238.000000
432.000000 -128.000000 240.000000
432.000000 -128.000000 242.000000
432.000000 -128.000000 244.000000
432.000000 -128.000000 246.000000
432.000000 -128.000000 248.000000
432.000000 -128.000000 250.000000
432.000000 -128.000000 252.000000
432.000000 -128.000000 256.000000
431.328182 -129.746728 256.705409
430.656363 -131.493455 257.410819
429.984545 -133.240183 258.116228
429.312727 -134.986911 258.821637
428.640908 -136.733639 259.527046
427.969090 -138.480366 260.232456
427.297271 -140.227094 260.937865
426.625453 -141.973822 261.643274
425.953635 -143.720550 262.348684
425.281816 -145.467277 263.054093
424.609998 -147.214005 263.759502
423.938180 -148.960733 264.464911
423.266361 -150.707461 265.170321
422.594543 -152.454188 265.875730
421.922725 -154.200916 266.581139
421.250906 -155.947644 267.286549
420.579088 -157.694372 267.991958
419.907269 -159.441099 268.697367
419.235451 -161.187827 269.402776
418.563633 -162.934555 270.108186
417.891814 -164.681283 270.813595
417.219996 -166.428010 271.519004
416.548178 -168.174738 272.224414
415.876359 -169.921466 272.929823
415.204541 -171.668194 273.635232
414.532723 -173.414921 274.340641
413.860904 -175.161649 275.046051
413.189086 -176.908377 275.751460
412.517267 -178.655105 276.456869
411.845449 -180.401832 277.162278
411.173631 -182.148560 277.867688
410.501812 -183.895288 278.573097
409.829994 -185.642016 279.278506
409.158176 -187.388743 279.983916
408.486357 -189.135471 280.689325
407.814539 -190.882199 281.394734
407.142720 -192.628927 282.100143
406.470902 -194.375654 282.805553
405.799084 -196.122382 283.510962
405.127265 -197.869110 284.216371
404.455447 -199.615838 284.921781
403.783629 -201.362565 285.627190
403.111810 -203.109293 286.332599
402.439992 -204.856021 287.038008
401.768174 -206.602749 287.743418
401.096355 -208.349476 288.448827
400.424537 -210.096204 289.154236
399.752718 -211.842932 289.859646
399.080900 -213.589660 290.565055
398.409082 -215.336387 291.270464
397.737263 -217.083115 291.975873
397.065445 -218.829843 292.681283
396.393627 -220.576571 293.386692
395.721808 -222.323298 294.092101
395.049990 -224.070026 294.797511
394.378172 -225.816754 295.502920
393.706353 -227.563482 296.208329
393.034535 -229.310209 296.913738
392.362716 -231.056937 297.619148
391.690898 -232.803665 298.324557
391.019080 -234.550393 299.029966
390.347261 -236.297120 299.735376
389.675443 -238.043848 300.440785
389.003625 -239.790576 301.146194
388.331806 -241.537304 301.851603
387.659988 -243.284031 302.557013
386.988170 -245.030759 303.262422
386.316351 -246.777487 303.967831
385.644533 -248.524215 304.673241
384.972714 -250.270942 305.378650
384.300896 -252.017670 306.084059
383.629078 -253.764398 306.789468
382.957259 -255.511126 307.494878
382.285441 -257.257853 308.200287
381.613623 -259.004581 308.905696
380.941804 -260.751309 309.611106
380.269986 -262.498037 310.316515
379.598168 -264.244764 311.021924
378.926349 -265.991492 311.727333
378.254531 -267.738220 312.432743
377.582712 -269.484948 313.138152
376.910894 -271.231675 313.843561
376.239076 -272.978403 314.548970
375.567257 -274.725131 315.254380
374.895439 -276.471859 315.959789
374.223621 -278.218586 316.665198
373.551802 -279.965314 317.370608
372.879984 -281.712042 318.076017
372.208166 -283.458770 318.781426
371.536347 -285.205497 319.486835
370.864529 -286.952225 320.192245
370.192710 -288.698953 320.897654
369.520892 -290.445681 321.603063
368.849074 -292.192408 322.308473
368.177255 -293.939136 323.013882
367.505437 -295.685864 323.719291
366.833619 -297.432592 324.424700
366.161800 -299.179319 325.130110
365.489982 -300.926047 325.835519
364.818164 -302.672775 326.540928
364.146345 -304.419503 327.246338
363.474527 -306.166230 327.951747
362.802708 -307.912958 328.657156
362.130890 -309.659686 329.362565
361.459072 -311.406414 330.067975
360.787253 -313.153141 330.773384
360.115435 -314.899869 331.478793
359.443617 -316.646597 332.184203
358.771798 -318.393325 332.889612
358.099980 -320.140052 333.595021
357.428161 -321.886780 334.300430
356.756343 -323.633508 335.005840
356.084525 -325.380236 335.711249
355.412706 -327.126963 336.416658
354.740888 -328.873691 337.122068
354.069070 -330.620419 337.827477
353.397251 -332.367147 338.532886
352.725433 -334.113874 339.238295
352.053615 -335.860602 339.943705
351.381796 -337.607330 340.649114
350.709978 -339.354058 341.354523
350.038159 -341.100785 342.059933
349.366341 -342.847513 342.765342
348.694523 -344.594241 343.470751
348.022704 -346.340969 344.176160
347.350886 -348.087696 344.881570
346.679068 -349.834424 345.586979
346.007249 -351.581152 346.292388
345.335431 -353.327880 346.997798
344.663613 -355.074607 347.703207
343.991794 -356.821335 348.408616
343.319976 -358.568063 349.114025
342.648157 -360.314791 349.819435
341.976339 -362.061518 350.524844
341.304521 -363.808246 351.230253
340.632702 -365.554974 351.935663
339.960884 -367.301702 352.641072
339.289066 -369.048429 353.346481
338.617247 -370.795157 354.051890
337.945429 -372.541885 354.757300
337.273611 -374.288613 355.462709
336.601792 -376.035340 356.168118
335.929974 -377.782068 356.873527
335.258155 -379.528796 357.578937
334.586337 -381.275524 358.284346
333.914519 -383.022251 358.989755
333.242700 -384.768979 359.695165
332.570882 -386.515707 360.400574
331.899064 -388.262435 361.105983
331.227245 -390.009162 361.811392
330.555427 -391.755890 362.516802
329.883609 -393.502618 363.222211
329.211790 -395.249346 363.927620
328.539972 -396.996073 364.633030
327.868153 -398.742801 365.338439
327.196335 -400.489529 366.043848
326.524517 -402.236257 366.749257
325.852698 -403.982984 367.454667
325.180880 -405.729712 368.160076
324.509062 -407.476440 368.865485
323.837243 -409.223168 369.570895
323.165425 -410.969895 370.276304
322.493607 -412.716623 370.981713
321.821788 -414.463351 371.687122
321.149970 -416.210079 372.392532
320.478151 -417.956806 373.097941
319.806333 -419.703534 373.803350
319.134515 -421.450262 374.508760
318.462696 -423.196990 375.214169
317.790878 -424.943717 375.919578
317.119060 -426.690445 376.624987
316.447241 -428.437173 377.330397
315.775423 -430.183901 378.035806
315.103605 -431.930628 378.741215
314.431786 -433.677356 379.446625
313.759968 -435.424084 380.152034
313.088149 -437.170812 380.857443
312.416331 -438.917539 381.562852
311.744513 -440.664267 382.268262
311.072694 -442.410995 382.973671
310.400876 -444.157723 383.679080
309.729058 -445.904450 384.384490
309.057239 -447.651178 385.089899
308.385421 -449.397906 385.795308
307.713602 -451.144634 386.500717
307.041784 -452.891361 387.206127
306.369966 -454.638089 387.911536
305.698147 -456.384817 388.616945
305.026329 -458.131544 389.322355
304.354511 -459.878272 390.027764
303.682692 -461.625000 390.733173
303.010874 -463.371728 391.438582
302.339056 -465.118455 392.143992
301.667237 -466.865183 392.849401
300.995419 -468.611911 393.554810
300.323600 -470.358639 394.260219
299.651782 -472.105366 394.965629
298.979964 -473.852094 395.671038
298.308145 -475.598822 396.376447
297.636327 -477.345550 397.081857
296.964509 -479.092277 397.787266
296.292690 -480.839005 398.492675
295.620872 -482.585733 399.198084
294.949054 -484.332461 399.903494
294.277235 -486.079188 400.608903
293.605417 -487.825916 401.314312
292.933598 -489.572644 402.019722
292.261780 -491.319372 402.725131
291.589962 -493.066099 403.430540
290.918143 -494.812827 404.135949
290.246325 -496.559555 404.841359
289.574507 -498.306283 405.546768
288.902688 -500.053010 406.252177
288.230870 -501.799738 406.957587
287.559052 -503.546466 407.662996
286.887233 -505.293194 408.368405
286.215415 -507.039921 409.073814
285.543596 -508.786649 409.779224
284.871778 -510.533377 410.484633
284.199960 -512.280105 411.190042
283.528141 -514.026832 411.895452
282.856323 -515.773560 412.600861
282.184505 -517.520288 413.306270
281.512686 -519.267016 414.011679
280.840868 -521.013743 414.717089
280.169050 -522.760471 415.422498
279.497231 -524.507199 416.127907
278.825413 -526.253927 416.833317
278.153594 -528.000654 417.538726
277.481776 -529.747382 418.244135
276.809958 -531.494110 418.949544
276.138139 -533.240838 419.654954
275.466321 -534.987565 420.360363
274.794503 -536.734293 421.065772
274.122684 -538.481021 421.771182
273.450866 -540.227749 422.476591
272.779048 -541.974476 423.182000
272.000000 -544.000000 424.000000
272.810106 -545.657034 423.226717
273.620211 -547.314069 422.453435
274.430317 -548.971103 421.680152
275.240423 -550.628137 420.906869
276.050528 -552.285172 420.133587
276.860634 -553.942206 419.360304
277.670740 -555.599240 418.587021
278.480845 -557.256274 417.813739
279.290951 -558.913309 417.040456
280.101057 -560.570343 416.267173
280.911162 -562.227377 415.493891
281.721268 -563.884412 414.720608
282.531374 -565.541446 413.947325
283.341479 -567.198480 413.174042
284.151585 -568.855515 412.400760
284.961691 -570.512549 411.627477
285.771796 -572.169583 410.854194
286.581902 -573.826618 410.080912
287.392008 -575.483652 409.307629
288.202113 -577.140686 408.534346
289.012219 -578.797721 407.761064
289.822325 -580.454755 406.987781
290.632430 -582.111789 406.214498
291.442536 -583.768823 405.441216
292.252642 -585.425858 404.667933
293.062747 -587.082892 403.894650
293.872853 -588.739926 403.121368
294.682959 -590.396961 402.348085
295.493064 -592.053995 401.574802
296.303170 -593.711029 400.801520
297.113276 -595.368064 400.028237
297.923381 -597.025098 399.254954
298.733487 -598.682132 398.481672
299.543593 -600.339167 397.708389
300.353698 -601.996201 396.935106
301.163804 -603.653235 396.161824
301.973910 -605.310270 395.388541
302.784015 -606.967304 394.615258
303.594121 -608.624338 393.841976
304.404227 -610.281372 393.068693
305.214332 -611.938407 392.295410
306.024438 -613.595441 391.522127
306.834544 -615.252475 390.748845
307.644649 -616.909510 389.975562
308.454755 -618.566544 389.202279
309.264861 -620.223578 388.428997
310.074966 -621.880613 387.655714
310.885072 -623.537647 386.882431
311.695178 -625.194681 386.109149
312.505283 -626.851716 385.335866
313.315389 -628.508750 384.562583
314.125495 -630.165784 383.789301
314.935600 -631.822819 383.016018
315.745706 -633.479853 382.242735
316.555812 -635.136887 381.469453
317.365917 -636.793921 380.696170
318.176023 -638.450956 379.922887
318.986128 -640.107990 379.149605
319.796234 -641.765024 378.376322
320.606340 -643.422059 377.603039
321.416445 -645.079093 376.829757
322.226551 -646.736127 376.056474
323.036657 -648.393162 375.283191
323.846762 -650.050196 374.509909
324.656868 -651.707230 373.736626
325.466974 -653.364265 372.963343
326.277079 -655.021299 372.190061
327.087185 -656.678333 371.416778
327.897291 -658.335368 370.643495
328.707396 -659.992402 369.870212
329.517502 -661.649436 369.096930
330.327608 -663.306470 368.323647
331.137713 -664.963505 367.550364
331.947819 -666.620539 366.777082
332.757925 -668.277573 366.003799
333.568030 -669.934608 365.230516
334.378136 -671.591642 364.457234
335.188242 -673.248676 363.683951
335.998347 -674.905711 362.910668
336.808453 -676.562745 362.137386
337.618559 -678.219779 361.364103
338.428664 -679.876814 360.590820
339.238770 -681.533848 359.817538
340.048876 -683.190882 359.044255
340.858981 -684.847917 358.270972
341.669087 -686.504951 357.497690
342.479193 -688.161985 356.724407
343.289298 -689.819019 355.951124
344.099404 -691.476054 355.177842
344.909510 -693.133088 354.404559
345.719615 -694.790122 353.631276
346.529721 -696.447157 352.857994
347.339827 -698.104191 352.084711
348.149932 -699.761225 351.311428
348.960038 -701.418260 350.538145
349.770144 -703.075294 349.764863
350.580249 -704.732328 348.991580
351.390355 -706.389363 348.218297
352.200461 -708.046397 347.445015
353.010566 -709.703431 346.671732
353.820672 -711.360466 345.898449
354.630778 -713.017500 345.125167
355.440883 -714.674534 344.351884
356.250989 -716.331568 343.578601
357.061095 -717.988603 342.805319
357.871200 -719.645637 342.032036
358.681306 -721.302671 341.258753
359.491412 -722.959706 340.485471
360.301517 -724.616740 339.712188
361.111623 -726.273774 338.938905
361.921729 -727.930809 338.165623
362.731834 -729.587843 337.392340
363.541940 -731.244877 336.619057
364.352046 -732.901912 335.845775
365.162151 -734.558946 335.072492
365.972257 -736.215980 334.299209
366.782363 -737.873015 333.525927
367.592468 -739.530049 332.752644
368.402574 -741.187083 331.979361
369.212680 -742.844117 331.206079
370.022785 -744.501152 330.432796
370.832891 -746.158186 329.659513
371.642997 -747.815220 328.886230
372.453102 -749.472255 328.112948
373.263208 -751.129289 327.339665
374.073314 -752.786323 326.566382
374.883419 -754.443358 325.793100
375.693525 -756.100392 325.019817
376.503631 -757.757426 324.246534
377.313736 -759.414461 323.473252
378.123842 -761.071495 322.699969
378.933948 -762.728529 321.926686
379.744053 -764.385564 321.153404
380.554159 -766.042598 320.380121
381.364265 -767.699632 319.606838
382.174370 -769.356666 318.833556
382.984476 -771.013701 318.060273
383.794582 -772.670735 317.286990
384.604687 -774.327769 316.513708
385.414793 -775.984804 315.740425
386.224899 -777.641838 314.967142
387.035004 -779.298872 314.193860
387.845110 -780.955907 313.420577
388.655216 -782.612941 312.647294
389.465321 -784.269975 311.874012
390.275427 -785.927010 311.100729
391.085533 -787.584044 310.327446
391.895638 -789.241078 309.554164
392.705744 -790.898113 308.780881
393.515850 -792.555147 308.007598
394.325955 -794.212181 307.234315
395.136061 -795.869215 306.461033
395.946167 -797.526250 305.687750
396.756272 -799.183284 304.914467
397.566378 -800.840318 304.141185
398.376484 -802.497353 303.367902
399.186589 -804.154387 302.594619
399.996695 -805.811421 301.821337
400.806801 -807.468456 301.048054
401.616906 -809.125490 300.274771
402.427012 -810.782524 299.501489
403.237118 -812.439559 298.728206
404.047223 -814.096593 297.954923
404.857329 -815.753627 297.181641
405.667435 -817.410662 296.408358
406.477540 -819.067696 295.635075
407.287646 -820.724730 294.861793
408.097752 -822.381764 294.088510
408.907857 -824.038799 293.315227
409.717963 -825.695833 292.541945
410.528069 -827.352867 291.768662
411.338174 -829.009902 290.995379
412.148280 -830.666936 290.222097
412.958385 -832.323970 289.448814
413.768491 -833.981005 288.675531
414.578597 -835.638039 287.902248
415.388702 -837.295073 287.128966
416.198808 -838.952108 286.355683
417.008914 -840.609142 285.582400
417.819019 -842.266176 284.809118
418.629125 -843.923211 284.035835
419.439231 -845.580245 283.262552
420.249336 -847.237279 282.489270
421.059442 -848.894313 281.715987
421.869548 -850.551348 280.942704
422.679653 -852.208382 280.169422
423.489759 -853.865416 279.396139
424.299865 -855.522451 278.622856
425.109970 -857.179485 277.849574
425.920076 -858.836519 277.076291
426.730182 -860.493554 276.303008
427.540287 -862.150588 275.529726
428.350393 -863.807622 274.756443
429.160499 -865.464657 273.983160
429.970604 -867.121691 273.209878
430.780710 -868.778725 272.436595
431.590816 -870.435760 271.663312
432.400921 -872.092794 270.890030
433.211027 -873.749828 270.116747
434.021133 -875.406862 269.343464
434.831238 -877.063897 268.570182
435.641344 -878.720931 267.796899
436.451450 -880.377965 267.023616
437.261555 -882.035000 266.250333
438.071661 -883.692034 265.477051
438.881767 -885.349068 264.703768
439.691872 -887.006103 263.930485
440.501978 -888.663137 263.157203
441.312084 -890.320171 262.383920
442.122189 -891.977206 261.610637
442.932295 -893.634240 260.837355
443.742401 -895.291274 260.064072
444.552506 -896.948309 259.290789
445.362612 -898.605343 258.517507
446.172718 -900.262377 257.744224
446.982823 -901.919411 256.970941
448.000000 -904.000000 256.000000
447.566369 -903.934955 254.048659
447.132737 -903.869911 252.097317
446.699106 -903.804866 250.145976
446.265474 -903.739821 248.194635
445.831843 -903.674776 246.243293
445.398212 -903.609732 244.291952
444.964580 -903.544687 242.340611
444.530949 -903.479642 240.389269
444.097317 -903.414598 238.437928
443.663686 -903.349553 236.486587
443.230055 -903.284508 234.535245
442.796423 -903.219463 232.583904
442.362792 -903.154419 230.632563
441.929160 -903.089374 228.681221
441.495529 -903.024329 226.729880
441.061897 -902.959285 224.778539
440.628266 -902.894240 222.827197
440.194635 -902.829195 220.875856
439.761003 -902.764150 218.924515
439.327372 -902.699106 216.973173
438.893740 -902.634061 215.021832
438.460109 -902.569016 213.070491
438.026478 -902.503972 211.119149
437.592846 -902.438927 209.167808
437.159215 -902.373882 207.216467
436.725583 -902.308838 205.265125
436.291952 -902.243793 203.313784
435.858321 -902.178748 201.362443
435.424689 -902.113703 199.411101
434.991058 -902.048659 197.459760
434.557426 -901.983614 195.508419
434.123795 -901.918569 193.557077
433.690164 -901.853525 191.605736
433.256532 -901.788480 189.654395
432.822901 -901.723435 187.703053
432.389269 -901.658390 185.751712
431.955638 -901.593346 183.800371
431.522007 -901.528301 181.849029
431.088375 -901.463256 179.897688
430.654744 -901.398212 177.946347
430.221112 -901.333167 175.995005
429.787481 -901.268122 174.043664
429.353850 -901.203077 172.092323
428.920218 -901.138033 170.140981
428.486587 -901.072988 168.189640
428.052955 -901.007943 166.238299
427.619324 -900.942899 164.286957
427.185692 -900.877854 162.335616
426.752061 -900.812809 160.384275
426.318430 -900.747764 158.432933
425.884798 -900.682720 156.481592
425.451167 -900.617675 154.530251
425.017535 -900.552630 152.578909
424.583904 -900.487586 150.627568
424.150273 -900.422541 148.676227
423.716641 -900.357496 146.724885
423.283010 -900.292451 144.773544
422.849378 -900.227407 142.822203
422.415747 -900.162362 140.870861
421.982116 -900.097317 138.919520
421.548484 -900.032273 136.968179
421.114853 -899.967228 135.016838
420.681221 -899.902183 133.065496
420.247590 -899.837138 131.114155
419.813959 -899.772094 129.162814
419.380327 -899.707049 127.211472
418.946696 -899.642004 125.260131
418.513064 -899.576960 123.308790
418.079433 -899.511915 121.357448
417.645802 -899.446870 119.406107
417.212170 -899.381826 117.454766
416.778539 -899.316781 115.503424
416.344907 -899.251736 113.552083
415.911276 -899.186691 111.600742
415.477644 -899.121647 109.649400
415.044013 -899.056602 107.698059
414.610382 -898.991557 105.746718
414.176750 -898.926513 103.795376
413.743119 -898.861468 101.844035
413.309487 -898.796423 99.892694
412.875856 -898.731378 97.941352
412.442225 -898.666334 95.990011
412.008593 -898.601289 94.038670
411.574962 -898.536244 92.087328
411.141330 -898.471200 90.135987
410.707699 -898.406155 88.184646
410.274068 -898.341110 86.233304
409.840436 -898.276065 84.281963
409.406805 -898.211021 82.330622
408.973173 -898.145976 80.379280
408.539542 -898.080931 78.427939
408.105911 -898.015887 76.476598
407.672279 -897.950842 74.525256
407.238648 -897.885797 72.573915
406.805016 -897.820752 70.622574
406.371385 -897.755708 68.671232
405.937754 -897.690663 66.719891
405.504122 -897.625618 64.768550
405.070491 -897.560574 62.817208
404.636859 -897.495529 60.865867
404.203228 -897.430484 58.914526
403.769597 -897.365439 56.963184
403.335965 -897.300395 55.011843
402.902334 -897.235350 53.060502
402.468702 -897.170305 51.109160
402.035071 -897.105261 49.157819
401.601439 -897.040216 47.206478
401.167808 -896.975171 45.255136
400.734177 -896.910126 43.303795
400.300545 -896.845082 41.352454
399.866914 -896.780037 39.401112
399.433282 -896.714992 37.449771
398.999651 -896.649948 35.498430
398.566020 -896.584903 33.547088
398.132388 -896.519858 31.595747
397.698757 -896.454814 29.644406
397.265125 -896.389769 27.693064
396.831494 -896.324724 25.741723
396.397863 -896.259679 23.790382
395.964231 -896.194635 21.839040
395.530600 -896.129590 19.887699
394.666667 -896.000000 16.000000
394.666667 -896.000000 14.000000
394.666667 -896.000000 12.000000
394.666667 -896.000000 10.000000
394.666667 -896.000000 8.000000
394.666667 -896.000000 6.000000
394.666667 -896.000000 4.000000
394.666667 -896.000000 2.000000
394.666667 -896.000000 0.000000
394.666667 -896.000000 -2.000000
394.666667 -896.000000 -4.000000
394.666667 -896.000000 -6.000000
394.666667 -896.000000 -8.000000
394.666667 -896.000000 -10.000000
394.666667 -896.000000 -12.000000
394.666667 -896.000000 -16.000000
393.803006 -896.000000 -17.803910
392.939346 -896.000000 -19.607820
392.075685 -896.000000 -21.411729
391.212025 -896.000000 -23.215639
390.348364 -896.000000 -25.019549
389.484704 -896.000000 -26.823459
388.621043 -896.000000 -28.627369
387.757383 -896.000000 -30.431278
386.893722 -896.000000 -32.235188
386.030062 -896.000000 -34.039098
385.166401 -896.000000 -35.843008
384.302741 -896.000000 -37.646917
383.439080 -896.000000 -39.450827
382.575419 -896.000000 -41.254737
381.711759 -896.000000 -43.058647
380.848098 -896.000000 -44.862557
379.984438 -896.000000 -46.666466
379.120777 -896.000000 -48.470376
378.257117 -896.000000 -50.274286
377.393456 -896.000000 -52.078196
376.529796 -896.000000 -53.882106
375.666135 -896.000000 -55.686015
374.802475 -896.000000 -57.489925
373.938814 -896.000000 -59.293835
373.075154 -896.000000 -61.097745
372.211493 -896.000000 -62.901654
371.347833 -896.000000 -64.705564
370.484172 -896.000000 -66.509474
369.620512 -896.000000 -68.313384
368.000000 -896.000000 -71.698113
366.000000 -896.000000 -71.698113
364.000000 -896.000000 -71.698113
362.000000 -896.000000 -71.698113
360.000000 -896.000000 -71.698113
358.000000 -896.000000 -71.698113
356.000000 -896.000000 -71.698113
354.000000 -896.000000 -71.698113
352.000000 -896.000000 -71.698113
350.000000 -896.000000 -71.698113
348.000000 -896.000000 -71.698113
346.000000 -896.000000 -71.698113
344.000000 -896.000000 -71.698113
342.000000 -896.000000 -71.698113
340.000000 -896.000000 -71.698113
338.000000 -896.000000 -71.698113
336.000000 -896.000000 -71.698113
334.000000 -896.000000 -71.698113
332.000000 -896.000000 -71.698113
330.000000 -896.000000 -71.698113
328.000000 -896.000000 -71.698113
326.000000 -896.000000 -71.698113
324.000000 -896.000000 -71.698113
322.000000 -896.000000 -71.698113
320.000000 -896.000000 -71.698113
318.000000 -896.000000 -71.698113
316.000000 -896.000000 -71.698113
314.000000 -896.000000 -71.698113
312.000000 -896.000000 -71.698113
310.000000 -896.000000 -71.698113
308.000000 -896.000000 -71.698113
306.000000 -896.000000 -71.698113
304.000000 -896.000000 -71.698113
302.000000 -896.000000 -71.698113
300.000000 -896.000000 -71.698113
298.000000 -896.000000 -71.698113
296.000000 -896.000000 -71.698113
294.000000 -896.000000 -71.698113
292.000000 -896.000000 -71.698113
290.000000 -896.000000 -71.698113
288.000000 -896.000000 -71.698113
286.000000 -896.000000 -71.698113
284.000000 -896.000000 -71.698113
282.000000 -896.000000 -71.698113
280.000000 -896.000000 -71.698113
278.000000 -896.000000 -71.698113
276.000000 -896.000000 -71.698113
274.000000 -896.000000 -71.698113
272.000000 -896.000000 -71.698113
270.000000 -896.000000 -71.698113
268.000000 -896.000000 -71.698113
266.000000 -896.000000 -71.698113
264.000000 -896.000000 -71.698113
262.000000 -896.000000 -71.698113
260.000000 -896.000000 -71.698113
258.000000 -896.000000 -71.698113
256.000000 -896.000000 -71.698113
254.000000 -896.000000 -71.698113
252.000000 -896.000000 -71.698113
250.000000 -896.000000 -71.698113
248.000000 -896.000000 -71.698113
246.000000 -896.000000 -71.698113
244.000000 -896.000000 -71.698113
242.000000 -896.000000 -71.698113
240.000000 -896.000000 -71.698113
238.000000 -896.000000 -71.698113
236.000000 -896.000000 -71.698113
234.000000 -896.000000 -71.698113
232.000000 -896.000000 -71.698113
230.000000 -896.000000 -71.698113
228.000000 -896.000000 -71.698113
226.000000 -896.000000 -71.698113
224.000000 -896.000000 -71.698113
222.000000 -896.000000 -71.698113
220.000000 -896.000000 -71.698113
218.000000 -896.000000 -71.698113
216.000000 -896.000000 -71.698113
214.000000 -896.000000 -71.698113
212.000000 -896.000000 -71.698113
210.000000 -896.000000 -71.698113
208.000000 -896.000000 -71.698113
206.000000 -896.000000 -71.698113
204.000000 -896.000000 -71.698113
202.000000 -896.000000 -71.698113
200.000000 -896.000000 -71.698113
198.000000 -896.000000 -71.698113
196.000000 -896.000000 -71.698113
194.000000 -896.000000 -71.698113
192.000000 -896.000000 -71.698113
190.000000 -896.000000 -71.698113
188.000000 -896.000000 -71.698113
186.000000 -896.000000 -71.698113
184.000000 -896.000000 -71.698113
182.000000 -896.000000 -71.698113
180.000000 -896.000000 -71.698113
178.000000 -896.000000 -71.698113
176.000000 -896.000000 -71.698113
174.000000 -896.000000 -71.698113
172.000000 -896.000000 -71.698113
170.000000 -896.000000 -71.698113
168.000000 -896.000000 -71.698113
166.000000 -896.000000 -71.698113
164.000000 -896.000000 -71.698113
162.000000 -896.000000 -71.698113
160.000000 -896.000000 -71.698113
158.000000 -896.000000 -71.698113
156.000000 -896.000000 -71.698113
154.000000 -896.000000 -71.698113
152.000000 -896.000000 -71.698113
150.000000 -896.000000 -71.698113
148.000000 -896.000000 -71.698113
146.000000 -896.000000 -71.698113
144.000000 -896.000000 -71.698113
142.000000 -896.000000 -71.698113
140.000000 -896.000000 -71.698113
138.000000 -896.000000 -71.698113
136.000000 -896.000000 -71.698113
134.000000 -896.000000 -71.698113
132.000000 -896.000000 -71.698113
130.000000 -896.000000 -71.698113
128.000000 -896.000000 -71.698113
126.000000 -896.000000 -71.698113
124.000000 -896.000000 -71.698113
122.000000 -896.000000 -71.698113
120.000000 -896.000000 -71.698113
118.000000 -896.000000 -71.698113
116.000000 -896.000000 -71.698113
114.000000 -896.000000 -71.698113
112.000000 -896.000000 -71.698113
110.000000 -896.000000 -71.698113
108.000000 -896.000000 -71.698113
106.000000 -896.000000 -71.698113
104.000000 -896.000000 -71.698113
102.000000 -896.000000 -71.698113
100.000000 -896.000000 -71.698113
98.000000 -896.000000 -71.698113
96.000000 -896.000000 -71.698113
94.000000 -896.000000 -71.698113
92.000000 -896.000000 -71.698113
90.000000 -896.000000 -71.698113
88.000000 -896.000000 -71.698113
86.000000 -896.000000 -71.698113
84.000000 -896.000000 -71.698113
82.000000 -896.000000 -71.698113
80.000000 -896.000000 -71.698113
78.000000 -896.000000 -71.698113
76.000000 -896.000000 -71.698113
74.000000 -896.000000 -71.698113
72.000000 -896.000000 -71.698113
70.000000 -896.000000 -71.698113
68.000000 -896.000000 -71.698113
66.000000 -896.000000 -71.698113
64.000000 -896.000000 -71.698113
62.000000 -896.000000 -71.698113
60.000000 -896.000000 -71.698113
58.000000 -896.000000 -71.698113
56.000000 -896.000000 -71.698113
54.000000 -896.000000 -71.698113
52.000000 -896.000000 -71.698113
50.000000 -896.000000 -71.698113
48.000000 -896.000000 -71.698113
46.000000 -896.000000 -71.698113
44.000000 -896.000000 -71.698113
42.000000 -896.000000 -71.698113
40.000000 -896.000000 -71.698113
38.000000 -896.000000 -71.698113
36.000000 -896.000000 -71.698113
34.000000 -896.000000 -71.698113
32.000000 -896.000000 -71.698113
30.000000 -896.000000 -71.698113
28.000000 -896.000000 -71.698113
26.000000 -896.000000 -71.698113
24.000000 -896.000000 -71.698113
22.000000 -896.000000 -71.698113
20.000000 -896.000000 -71.698113
16.000000 -896.000000 -71.698113
14.000000 -896.000000 -71.698113
12.000000 -896.000000 -71.698113
10.000000 -896.000000 -71.698113
8.000000 -896.000000 -71.698113
6.000000 -896.000000 -71.698113
4.000000 -896.000000 -71.698113
2.000000 -896.000000 -71.698113
0.000000 -896.000000 -71.698113
-2.000000 -896.000000 -71.698113
-4.000000 -896.000000 -71.698113
-6.000000 -896.000000 -71.698113
-8.000000 -896.000000 -71.698113
-10.000000 -896.000000 -71.698113
-12.000000 -896.000000 -71.698113
-14.000000 -896.000000 -71.698113
-16.000000 -896.000000 -71.698113
-18.000000 -896.000000 -71.698113
-20.000000 -896.000000 -71.698113
-22.000000 -896.000000 -71.698113
-24.000000 -896.000000 -71.698113
-26.000000 -896.000000 -71.698113
-28.000000 -896.000000 -71.698113
-30.000000 -896.000000 -71.698113
-32.000000 -896.000000 -71.698113
-34.000000 -896.000000 -71.698113
-36.000000 -896.000000 -71.698113
-38.000000 -896.000000 -71.698113
-40.000000 -896.000000 -71.698113
-42.000000 -896.000000 -71.698113
-44.000000 -896.000000 -71.698113
-46.000000 -896.000000 -71.698113
-48.000000 -896.000000 -71.698113
-50.000000 -896.000000 -71.698113
-52.000000 -896.000000 -71.698113
-54.000000 -896.000000 -71.698113
-56.000000 -896.000000 -71.698113
-58.000000 -896.000000 -71.698113
-60.000000 -896.000000 -71.698113
-62.000000 -896.000000 -71.698113
-64.000000 -896.000000 -71.698113
-66.000000 -896.000000 -71.698113
-68.000000 -896.000000 -71.698113
-70.000000 -896.000000 -71.698113
-72.000000 -896.000000 -71.698113
-74.000000 -896.000000 -71.698113
-76.000000 -896.000000 -71.698113
-78.000000 -896.000000 -71.698113
-80.000000 -896.000000 -71.698113
-82.000000 -896.000000 -71.698113
-84.000000 -896.000000 -71.698113
-86.000000 -896.000000 -71.698113
-88.000000 -896.000000 -71.698113
-90.000000 -896.000000 -71.698113
-92.000000 -896.000000 -71.698113
-94.000000 -896.000000 -71.698113
-96.000000 -896.000000 -71.698113
-98.000000 -896.000000 -71.698113
-100.000000 -896.000000 -71.698113
-102.000000 -896.000000 -71.698113
-104.000000 -896.000000 -71.698113
-106.000000 -896.000000 -71.698113
-108.000000 -896.000000 -71.698113
-110.000000 -896.000000 -71.698113
-112.000000 -896.000000 -71.698113
-114.000000 -896.000000 -71.698113
-116.000000 -896.000000 -71.698113
-118.000000 -896.000000 -71.698113
-120.000000 -896.000000 -71.698113
-122.000000 -896.000000 -71.698113
-124.000000 -896.000000 -71.698113
-126.000000 -896.000000 -71.698113
-128.000000 -896.000000 -71.698113
-130.000000 -896.000000 -71.698113
-132.000000 -896.000000 -71.698113
-134.000000 -896.000000 -71.698113
-136.000000 -896.000000 -71.698113
-138.000000 -896.000000 -71.698113
-140.000000 -896.000000 -71.698113
-142.000000 -896.000000 -71.698113
-144.000000 -896.000000 -71.698113
-146.000000 -896.000000 -71.698113
-148.000000 -896.000000 -71.698113
-150.000000 -896.000000 -71.698113
-152.000000 -896.000000 -71.698113
-154.000000 -896.000000 -71.698113
-156.000000 -896.000000 -71.698113
-158.000000 -896.000000 -71.698113
-160.000000 -896.000000 -71.698113
-162.000000 -896.000000 -71.698113
-164.000000 -896.000000 -71.698113
-166.000000 -896.000000 -71.698113
-168.000000 -896.000000 -71.698113
-170.000000 -896.000000 -71.698113
-172.000000 -896.000000 -71.698113
-174.000000 -896.000000 -71.698113
-176.000000 -896.000000 -71.698113
-178.000000 -896.000000 -71.698113
-180.000000 -896.000000 -71.698113
-182.000000 -896.000000 -71.698113
-184.000000 -896.000000 -71.698113
-186.000000 -896.000000 -71.698113
-188.000000 -896.000000 -71.698113
-190.000000 -896.000000 -71.698113
-192.000000 -896.000000 -71.698113
-194.000000 -896.000000 -71.698113
-196.000000 -896.000000 -71.698113
-198.000000 -896.000000 -71.698113
-200.000000 -896.000000 -71.698113
-202.000000 -896.000000 -71.698113
-204.000000 -896.000000 -71.698113
-206.000000 -896.000000 -71.698113
-208.000000 -896.000000 -71.698113
-210.000000 -896.000000 -71.698113
-212.000000 -896.000000 -71.698113
-214.000000 -896.000000 -71.698113
-216.000000 -896.000000 -71.698113
-218.000000 -896.000000 -71.698113
-220.000000 -896.000000 -71.698113
-222.000000 -896.000000 -71.698113
-224.000000 -896.000000 -71.698113
-226.000000 -896.000000 -71.698113
-228.000000 -896.000000 -71.698113
-230.000000 -896.000000 -71.698113
-232.000000 -896.000000 -71.698113
-234.000000 -896.000000 -71.698113
-236.000000 -896.000000 -71.698113
-238.000000 -896.000000 -71.698113
-240.000000 -896.000000 -71.698113
-242.000000 -896.000000 -71.698113
-244.000000 -896.000000 -71.698113
-246.000000 -896.000000 -71.698113
-248.000000 -896.000000 -71.698113
-250.000000 -896.000000 -71.698113
-252.000000 -896.000000 -71.698113
-256.000000 -896.000000 -71.698113
-257.337929 -894.513412 -71.698113
-258.675859 -893.026823 -71.698113
-260.013788 -891.540235 -71.698113
-261.351718 -890.053647 -71.698113
-262.689647 -888.567059 -71.698113
-264.027577 -887.080470 -71.698113
-265.365506 -885.593882 -71.698113
-266.703436 -884.107294 -71.698113
-268.041365 -882.620705 -71.698113
-269.379295 -881.134117 -71.698113
-270.717224 -879.647529 -71.698113
-272.055154 -878.160940 -71.698113
-273.393083 -876.674352 -71.698113
-274.731012 -875.187764 -71.698113
-276.068942 -873.701176 -71.698113
-277.406871 -872.214587 -71.698113
-278.744801 -870.727999 -71.698113
-280.082730 -869.241411 -71.698113
-281.420660 -867.754822 -71.698113
-282.758589 -866.268234 -71.698113
-284.096519 -864.781646 -71.698113
-285.434448 -863.295058 -71.698113
-286.772378 -861.808469 -71.698113
-288.110307 -860.321881 -71.698113
-289.448237 -858.835293 -71.698113
-290.786166 -857.348704 -71.698113
-292.124096 -855.862116 -71.698113
-293.462025 -854.375528 -71.698113
-294.799954 -852.888940 -71.698113
-296.137884 -851.402351 -71.698113
-297.475813 -849.915763 -71.698113
-298.813743 -848.429175 -71.698113
-300.151672 -846.942586 -71.698113
-301.489602 -845.455998 -71.698113
-302.827531 -843.969410 -71.698113
-304.165461 -842.482821 -71.698113
-305.503390 -840.996233 -71.698113
-306.841320 -839.509645 -71.698113
-308.179249 -838.023057 -71.698113
-309.517179 -836.536468 -71.698113
-310.855108 -835.049880 -71.698113
-312.193037 -833.563292 -71.698113
-313.530967 -832.076703 -71.698113
-314.868896 -830.590115 -71.698113
-316.206826 -829.103527 -71.698113
-317.544755 -827.616939 -71.698113
-318.882685 -826.130350 -71.698113
-320.220614 -824.643762 -71.698113
-321.558544 -823.157174 -71.698113
-322.896473 -821.670585 -71.698113
-324.234403 -820.183997 -71.698113
-325.572332 -818.697409 -71.698113
-328.000000 -816.000000 -71.698113
-328.000000 -814.000000 -71.698113
-328.000000 -812.000000 -71.698113
-328.000000 -810.000000 -71.698113
-328.000000 -808.000000 -71.698113
-328.000000 -806.000000 -71.698113
-328.000000 -804.000000 -71.698113
-328.000000 -802.000000 -71.698113
-328.000000 -800.000000 -71.698113
-328.000000 -798.000000 -71.698113
-328.000000 -796.000000 -71.698113
-328.000000 -794.000000 -71.698113
-328.000000 -792.000000 -71.698113
-328.000000 -790.000000 -71.698113
-328.000000 -788.000000 -71.698113
-328.000000 -786.000000 -71.698113
-328.000000 -784.000000 -71.698113
-328.000000 -782.000000 -71.698113
-328.000000 -780.000000 -71.698113
-328.000000 -778.000000 -71.698113
-328.000000 -776.000000 -71.698113
-328.000000 -774.000000 -71.698113
-328.000000 -772.000000 -71.698113
-328.000000 -770.000000 -71.698113
-328.000000 -768.000000 -71.698113
-328.000000 -766.000000 -71.698113
-328.000000 -764.000000 -71.698113
-328.000000 -762.000000 -71.698113
-328.000000 -760.000000 -71.698113
-328.000000 -758.000000 -71.698113
-328.000000 -756.000000 -71.698113
-328.000000 -754.000000 -71.698113
-328.000000 -752.000000 -71.698113
-328.000000 -750.000000 -71.698113
-328.000000 -748.000000 -71.698113
-328.000000 -746.000000 -71.698113
-328.000000 -744.000000 -71.698113
-328.000000 -742.000000 -71.698113
-328.000000 -740.000000 -71.698113
-328.000000 -736.000000 -71.698113
-328.000000 -734.000000 -71.698113
-328.000000 -732.000000 -71.698113
-328.000000 -730.000000 -71.698113
-328.000000 -728.000000 -71.698113
-328.000000 -726.000000 -71.698113
-328.000000 -724.000000 -71.698113
-328.000000 -722.000000 -71.698113
-328.000000 -720.000000 -71.698113
-328.000000 -718.000000 -71.698113
-328.000000 -716.000000 -71.698113
-328.000000 -714.000000 -71.698113
-328.000000 -712.000000 -71.698113
-328.000000 -710.000000 -71.698113
-328.000000 -708.000000 -71.698113
-328.000000 -706.000000 -71.698113
-328.000000 -704.000000 -71.698113
-328.000000 -702.000000 -71.698113
-328.000000 -700.000000 -71.698113
-328.000000 -698.000000 -71.698113
-328.000000 -696.000000 -71.698113
-328.000000 -694.000000 -71.698113
-328.000000 -692.000000 -71.698113
-328.000000 -690.000000 -71.698113
-328.000000 -688.000000 -71.698113
-328.000000 -686.000000 -71.698113
-328.000000 -684.000000 -71.698113
-328.000000 -682.000000 -71.698113
-328.000000 -680.000000 -71.698113
-328.000000 -678.000000 -71.698113
-328.000000 -676.000000 -71.698113
-328.000000 -674.000000 -71.698113
-328.000000 -672.000000 -71.698113
-328.000000 -670.000000 -71.698113
-328.000000 -668.000000 -71.698113
-328.000000 -666.000000 -71.698113
-328.000000 -664.000000 -71.698113
-328.000000 -662.000000 -71.698113
-328.000000 -660.000000 -71.698113
-328.000000 -658.000000 -71.698113
-328.000000 -656.000000 -71.698113
-328.000000 -654.000000 -71.698113
-328.000000 -652.000000 -71.698113
-328.000000 -650.000000 -71.698113
-328.000000 -648.000000 -71.698113
-328.000000 -646.000000 -71.698113
-328.000000 -644.000000 -71.698113
-328.000000 -642.000000 -71.698113
-328.000000 -640.000000 -71.698113
-328.000000 -638.000000 -71.698113
-328.000000 -636.000000 -71.698113
-328.000000 -634.000000 -71.698113
-328.000000 -632.000000 -71.698113
-328.000000 -630.000000 -71.698113
-328.000000 -628.000000 -71.698113
-328.000000 -624.000000 -71.698113
-328.050347 -623.037897 -73.450775
-328.100695 -622.075793 -75.203436
-328.151042 -621.113690 -76.956098
-328.201390 -620.151586 -78.708759
-328.251737 -619.189483 -80.461420
-328.302085 -618.227380 -82.214082
-328.352432 -617.265276 -83.966743
-328.402780 -616.303173 -85.719405
-328.453127 -615.341069 -87.472066
-328.503475 -614.378966 -89.224728
-328.553822 -613.416863 -90.977389
-328.604169 -612.454759 -92.730051
-328.654517 -611.492656 -94.482712
-328.704864 -610.530552 -96.235374
-328.755212 -609.568449 -97.988035
-328.805559 -608.606346 -99.740697
-328.855907 -607.644242 -101.493358
-328.906254 -606.682139 -103.246019
-328.956602 -605.720035 -104.998681
-329.006949 -604.757932 -106.751342
-329.057297 -603.795829 -108.504004
-329.107644 -602.833725 -110.256665
-329.157991 -601.871622 -112.009327
-329.208339 -600.909518 -113.761988
-329.258686 -599.947415 -115.514650
-329.309034 -598.985312 -117.267311
-329.359381 -598.023208 -119.019973
-329.409729 -597.061105 -120.772634
-329.460076 -596.099001 -122.525295
-329.510424 -595.136898 -124.277957
-329.600000 -593.425160 -127.396226
-329.428312 -592.413795 -129.113103
-329.256625 -591.402430 -130.829979
-329.084937 -590.391066 -132.546856
-328.913249 -589.379701 -134.263732
-328.741562 -588.368336 -135.980609
-328.569874 -587.356972 -137.697485
-328.398186 -586.345607 -139.414362
-328.226499 -585.334242 -141.131238
-328.000000 -584.000000 -143.396226
-329.955605 -584.000000 -143.815285
-331.911210 -584.000000 -144.234343
-333.866814 -584.000000 -144.653401
-335.822419 -584.000000 -145.072459
-337.778024 -584.000000 -145.491517
-339.733629 -584.000000 -145.910575
-341.689234 -584.000000 -146.329634
-343.644839 -584.000000 -146.748692
-345.600443 -584.000000 -147.167750
-347.556048 -584.000000 -147.586808
-349.511653 -584.000000 -148.005866
-351.467258 -584.000000 -148.424925
-353.422863 -584.000000 -148.843983
-355.378468 -584.000000 -149.263041
-357.334072 -584.000000 -149.682099
-359.289677 -584.000000 -150.101157
-361.245282 -584.000000 -150.520215
-363.200887 -584.000000 -150.939274
-365.156492 -584.000000 -151.358332
-367.112097 -584.000000 -151.777390
-369.067701 -584.000000 -152.196448
-371.023306 -584.000000 -152.615506
-372.978911 -584.000000 -153.034564
-374.934516 -584.000000 -153.453623
-376.890121 -584.000000 -153.872681
-378.845726 -584.000000 -154.291739
-380.801330 -584.000000 -154.710797
-384.000000 -584.000000 -155.396226
-386.000000 -584.000000 -155.396226
-388.000000 -584.000000 -155.396226
-390.000000 -584.000000 -155.396226
-392.000000 -584.000000 -155.396226
-394.000000 -584.000000 -155.396226
-396.000000 -584.000000 -155.396226
-398.000000 -584.000000 -155.396226
-400.000000 -584.000000 -155.396226
-402.000000 -584.000000 -155.396226
-404.000000 -584.000000 -155.396226
-406.000000 -584.000000 -155.396226
-408.000000 -584.000000 -155.396226
-410.000000 -584.000000 -155.396226
-412.000000 -584.000000 -155.396226
-414.000000 -584.000000 -155.396226
-416.000000 -584.000000 -155.396226
-418.000000 -584.000000 -155.396226
-420.000000 -584.000000 -155.396226
-422.000000 -584.000000 -155.396226
-424.000000 -584.000000 -155.396226
-426.000000 -584.000000 -155.396226
-428.000000 -584.000000 -155.396226
-430.000000 -584.000000 -155.396226
-432.000000 -584.000000 -155.396226
-434.000000 -584.000000 -155.396226
-436.000000 -584.000000 -155.396226
-438.000000 -584.000000 -155.396226
-440.000000 -584.000000 -155.396226
-442.000000 -584.000000 -155.396226
-444.000000 -584.000000 -155.396226
-446.000000 -584.000000 -155.396226
-448.000000 -584.000000 -155.396226
-450.000000 -584.000000 -155.396226
-452.000000 -584.000000 -155.396226
-454.000000 -584.000000 -155.396226
-456.000000 -584.000000 -155.396226
-458.000000 -584.000000 -155.396226
-460.000000 -584.000000 -155.396226
-462.000000 -584.000000 -155.396226
-464.000000 -584.000000 -155.396226
-466.000000 -584.000000 -155.396226
-468.000000 -584.000000 -155.396226
-470.000000 -584.000000 -155.396226
-472.000000 -584.000000 -155.396226
-474.000000 -584.000000 -155.396226
-476.000000 -584.000000 -155.396226
-478.000000 -584.000000 -155.396226
-480.000000 -584.000000 -155.396226
-482.000000 -584.000000 -155.396226
-484.000000 -584.000000 -155.396226
-486.000000 -584.000000 -155.396226
-488.000000 -584.000000 -155.396226
-490.000000 -584.000000 -155.396226
-492.000000 -584.000000 -155.396226
-496.000000 -584.000000 -155.396226
-496.328357 -585.477607 -154.088993
-496.656714 -586.955214 -152.781760
-496.985071 -588.432822 -151.474527
-497.313429 -589.910429 -150.167294
-497.641786 -591.388036 -148.860060
-497.970143 -592.865643 -147.552827
-498.298500 -594.343250 -146.245594
-498.626857 -595.820857 -144.938361
-498.955214 -597.298465 -143.631128
-499.283572 -598.776072 -142.323895
-499.611929 -600.253679 -141.016661
-499.940286 -601.731286 -139.709428
-500.268643 -603.208893 -138.402195
-500.597000 -604.686501 -137.094962
-500.925357 -606.164108 -135.787729
-501.253714 -607.641715 -134.480495
-501.582072 -609.119322 -133.173262
-501.910429 -610.596929 -131.866029
-502.238786 -612.074536 -130.558796
-502.567143 -613.552144 -129.251563
-502.895500 -615.029751 -127.944330
-503.223857 -616.507358 -126.637096
-503.552214 -617.984965 -125.329863
-503.880572 -619.462572 -124.022630
-504.208929 -620.940179 -122.715397
-504.537286 -622.417787 -121.408164
-504.865643 -623.895394 -120.100930
-505.194000 -625.373001 -118.793697
-505.522357 -626.850608 -117.486464
-505.850715 -628.328215 -116.179231
-506.179072 -629.805823 -114.871998
-506.507429 -631.283430 -113.564764
-506.835786 -632.761037 -112.257531
-507.164143 -634.238644 -110.950298
-507.492500 -635.716251 -109.643065
-507.820857 -637.193858 -108.335832
-508.149215 -638.671466 -107.028599
-508.477572 -640.149073 -105.721365
-508.805929 -641.626680 -104.414132
-509.134286 -643.104287 -103.106899
-509.462643 -644.581894 -101.799666
-509.791000 -646.059502 -100.492433
-510.119357 -647.537109 -99.185199
-510.447715 -649.014716 -97.877966
-510.776072 -650.492323 -96.570733
-511.104429 -651.969930 -95.263500
-511.432786 -653.447537 -93.956267
-512.000000 -656.000000 -91.698113
-513.998726 -656.071383 -91.698113
-515.997451 -656.142766 -91.698113
-517.996177 -656.214149 -91.698113
-519.994903 -656.285532 -91.698113
-521.993629 -656.356915 -91.698113
-523.992354 -656.428298 -91.698113
-525.991080 -656.499681 -91.698113
-527.989806 -656.571064 -91.698113
-529.988531 -656.642448 -91.698113
-531.987257 -656.713831 -91.698113
-533.985983 -656.785214 -91.698113
-535.984709 -656.856597 -91.698113
-537.983434 -656.927980 -91.698113
-539.982160 -656.999363 -91.698113
-541.980886 -657.070746 -91.698113
-543.979611 -657.142129 -91.698113
-545.978337 -657.213512 -91.698113
-547.977063 -657.284895 -91.698113
-549.975788 -657.356278 -91.698113
-551.974514 -657.427661 -91.698113
-553.973240 -657.499044 -91.698113
-555.971966 -657.570427 -91.698113
-557.970691 -657.641810 -91.698113
-559.969417 -657.713193 -91.698113
-561.968143 -657.784577 -91.698113
-563.966868 -657.855960 -91.698113
-565.965594 -657.927343 -91.698113
-567.964320 -657.998726 -91.698113
-569.963046 -658.070109 -91.698113
-571.961771 -658.141492 -91.698113
-573.960497 -658.212875 -91.698113
-575.959223 -658.284258 -91.698113
-577.957948 -658.355641 -91.698113
-579.956674 -658.427024 -91.698113
-581.955400 -658.498407 -91.698113
-583.954126 -658.569790 -91.698113
-585.952851 -658.641173 -91.698113
-587.951577 -658.712556 -91.698113
-589.950303 -658.783939 -91.698113
-591.949028 -658.855322 -91.698113
-593.947754 -658.926706 -91.698113
-595.946480 -658.998089 -91.698113
-597.945205 -659.069472 -91.698113
-599.943931 -659.140855 -91.698113
-601.942657 -659.212238 -91.698113
-603.941383 -659.283621 -91.698113
-605.940108 -659.355004 -91.698113
-607.938834 -659.426387 -91.698113
-609.937560 -659.497770 -91.698113
-611.936285 -659.569153 -91.698113
-613.935011 -659.640536 -91.698113
-615.933737 -659.711919 -91.698113
-617.932463 -659.783302 -91.698113
-619.931188 -659.854685 -91.698113
-621.929914 -659.926068 -91.698113
-623.928640 -659.997451 -91.698113
-625.927365 -660.068834 -91.698113
-627.926091 -660.140218 -91.698113
-629.924817 -660.211601 -91.698113
-631.923543 -660.282984 -91.698113
-633.922268 -660.354367 -91.698113
-635.920994 -660.425750 -91.698113
-637.919720 -660.497133 -91.698113
-639.918445 -660.568516 -91.698113
-641.917171 -660.639899 -91.698113
-643.915897 -660.711282 -91.698113
-645.914622 -660.782665 -91.698113
-647.913348 -660.854048 -91.698113
-649.912074 -660.925431 -91.698113
-651.910800 -660.996814 -91.698113
-653.909525 -661.068197 -91.698113
-655.908251 -661.139580 -91.698113
-657.906977 -661.210963 -91.698113
-659.905702 -661.282347 -91.698113
-661.904428 -661.353730 -91.698113
-663.903154 -661.425113 -91.698113
-665.901880 -661.496496 -91.698113
-667.900605 -661.567879 -91.698113
-669.899331 -661.639262 -91.698113
-671.898057 -661.710645 -91.698113
-673.896782 -661.782028 -91.698113
-675.895508 -661.853411 -91.698113
-677.894234 -661.924794 -91.698113
-679.892960 -661.996177 -91.698113
-681.891685 -662.067560 -91.698113
-683.890411 -662.138943 -91.698113
-685.889137 -662.210326 -91.698113
-687.887862 -662.281709 -91.698113
-689.886588 -662.353092 -91.698113
